# .PCD v0.7 - Point Cloud Data file format
VERSION 0.7
FIELDS x y z normal_x normal_y normal_z curvature
SIZE 4 4 4 4 4 4 4
TYPE F F F F F F F
COUNT 1 1 1 1 1 1 1
WIDTH 213
HEIGHT 1
VIEWPOINT 0 0 0 1 0 0 0
POINTS 213
DATA ascii
0.056451142 -0.14326021 -0.21380927 -0.18899234 -0.01623928 -0.98184425 0
0.14920387 -0.14350511 -0.21403576 -0.0017113808 -0.032424942 -0.99947274 0
0.24943617 -0.14354135 -0.21394397 -0.001675479 0.0099321185 -0.99994928 0
0.35090405 -0.14337048 -0.21368842 -0.00391482 0.049301375 -0.99877626 0
0.44956633 -0.14463973 -0.21439056 0.0035254231 0.010844586 -0.99993497 0
0.5463047 -0.14496012 -0.21358624 0.010389628 0.0024623855 -0.99994302 0
0.64973134 -0.1453456 -0.21358007 0.0088927234 0.13314253 -0.9910571 0
0.74858975 -0.14637171 -0.21327767 0.0086509082 0.067774385 -0.99766326 0
0.84886289 -0.1487956 -0.2141421 0.0054386612 -0.056941453 -0.99836272 0
0.94689804 -0.14892928 -0.21359813 0.0032808762 -0.010020004 -0.99994445 0
1.0501012 -0.15005833 -0.21404402 0.0010481271 -0.061443381 -0.99811006 0
1.147022 -0.15092462 -0.21437398 0.002945751 -0.085625663 -0.99632299 0
1.2478213 -0.15139756 -0.21405298 0.010458105 -0.0039366204 -0.99993759 0
1.3506833 -0.15143551 -0.21366674 0.0092510208 0.13272765 -0.99110937 0
1.4502914 -0.15298159 -0.21415418 0.0067540635 -0.037190255 -0.9992854 0
1.548732 -0.15384661 -0.21430148 0.0039984351 -0.032640729 -0.99945909 0
1.6511519 -0.1543691 -0.21373995 0.00078402896 -0.12982248 -0.99153697 0
1.7540327 -0.1550148 -0.21390365 -0.00093717582 -0.17651394 -0.98429763 0
1.8531744 -0.15532985 -0.2149519 -0.0010589251 -0.13143159 -0.99132466 0
1.9499494 -0.15620129 -0.21494666 0.0083537996 -0.088594556 -0.99603277 0
2.0519869 -0.15577126 -0.21431789 0.0084558791 0.10729863 -0.99419087 0
2.1502244 -0.15694876 -0.21383485 0.005629553 -0.069536604 -0.99756348 0
2.2527897 -0.15767695 -0.21367098 0.0015642256 -0.079031467 -0.99687088 0
2.3483219 -0.15700457 -0.21462898 0.00012740961 0.1832411 -0.98306799 0
2.4512947 -0.15837561 -0.21377549 -0.0025660244 -0.12958388 -0.99156523 0
2.5494442 -0.15932126 -0.21380602 -0.0049068821 -0.2219809 -0.97503865 0
2.6127279 -0.15936773 -0.21342406 0.65843588 -0.15975083 -0.73548752 0
0.042825229 -0.13098274 -0.15554829 -0.52966398 -0.84087551 0.11128572 0
0.15052456 -0.13627683 -0.15598381 -0.011632523 -0.97233337 0.23330785 0
0.25255415 -0.13638885 -0.15409468 -0.01199314 -0.97490901 0.22228055 0
0.34957758 -0.13722982 -0.15808597 -0.031963609 -0.98588413 0.16434976 0
0.44911289 -0.14140651 -0.15424934 -0.027201178 -0.98496032 0.1706264 0
0.54921359 -0.14059037 -0.15743189 -0.0021251733 -0.99463981 0.10337882 0
0.64961791 -0.14115955 -0.15889627 -0.0034264196 -0.99775428 0.06689278 0
0.75369549 -0.14195912 -0.15705693 -0.0053247474 -0.99779212 0.066200972 0
0.84897935 -0.14042708 -0.15714616 -0.0055778073 -0.99997616 0.0040703909 0
0.94922537 -0.14060816 -0.16052923 -0.005573906 -0.99642998 -0.084238671 0
1.0506603 -0.14066425 -0.15881245 -0.0084889093 -0.9921813 -0.12451565 0
1.1507924 -0.14133926 -0.15894224 -0.0037048697 -0.98777467 -0.1558443 0
1.2494676 -0.14055686 -0.15960085 0.011098254 -0.96693593 -0.25477788 0
1.3512455 -0.13914171 -0.16120541 0.023364406 -0.83609778 -0.54808271 0
1.4515312 -0.13954709 -0.15699334 0.020288249 -0.86215603 -0.50623655 0
1.5506032 -0.14024851 -0.15568136 0.018890031 -0.79850793 -0.60168785 0
1.6504654 -0.13936941 -0.15630308 0.030478837 -0.35070035 -0.93599164 0
1.7506562 -0.14022094 -0.15339276 0.027574006 -0.29209822 -0.95599073 0
1.8515245 -0.14048527 -0.15074952 0.0355484 -0.10256109 -0.99409133 0
1.9495128 -0.14251649 -0.14955395 0.096923873 -0.091263011 -0.99109882 0
2.0504763 -0.14532343 -0.14881179 0.079365246 -0.16405143 -0.98325396 0
2.1497462 -0.1473766 -0.14944124 0.072854027 -0.060047895 -0.99553329 0
2.2495041 -0.14965777 -0.14977291 0.062196538 0.0011421681 -0.99806327 0
2.3496785 -0.15171541 -0.15071644 0.051921666 0.18578692 -0.98121727 0
2.4498045 -0.1540751 -0.14755319 0.041495766 -0.050276231 -0.99787295 0
2.5519252 -0.15610044 -0.15037316 0.017077187 0.22591728 -0.97399682 0
2.6140029 -0.15869328 -0.14844111 0.99572164 -0.039495789 -0.083537862 0
0.041724566 -0.056874294 -0.14091954 -0.29891434 0.63125861 -0.71565551 0
0.15026799 -0.055605624 -0.14503261 0.011717507 0.71200079 -0.70208091 0
0.25023654 -0.056352582 -0.14423692 0.012610895 0.72374541 -0.68995172 0
0.35105416 -0.059157316 -0.14532004 0.01690428 0.73262513 -0.68042248 0
0.44781128 -0.061428662 -0.14417717 0.033492438 0.75555861 -0.6542244 0
0.54992169 -0.064574033 -0.14227132 0.037942741 0.76957673 -0.63742614 0
0.64876252 -0.068376638 -0.14136271 0.036584143 0.78221893 -0.62192857 0
0.74906898 -0.070592806 -0.13829444 0.036174182 0.79987347 -0.59907752 0
0.85050702 -0.072823197 -0.13553098 0.035320371 0.81974012 -0.57164544 0
0.94947773 -0.075290173 -0.13313149 0.034734532 0.83353853 -0.55136836 0
1.0478451 -0.078093782 -0.13124467 0.034060057 0.85178298 -0.52278638 0
1.1507914 -0.081212513 -0.12969477 0.037447281 0.8639183 -0.50223774 0
1.2492337 -0.085040376 -0.12818527 0.044339262 0.86830693 -0.49404144 0
1.3486838 -0.086996511 -0.12272806 0.044052806 0.88650566 -0.46061584 0
1.4490324 -0.089599013 -0.118678 0.042804535 0.90774167 -0.41734028 0
1.5439527 -0.091906913 -0.11471753 0.042727742 0.91666853 -0.39735779 0
1.6484774 -0.095483407 -0.11237162 0.04286145 0.92360038 -0.38095304 0
1.7378647 -0.097651154 -0.1074499 0.043235395 0.94652385 -0.31972378 0
1.8202152 -0.099800907 -0.10219313 0.043368246 0.95803088 -0.28336549 0
-0.002535163 -0.10658702 -0.079458289 -0.77761358 -0.61692274 0.12133985 0
0.052122694 -0.11050025 -0.078009821 -0.030348137 -0.91391802 0.40476283 0
0.14900784 -0.11160844 -0.074387535 -0.01938545 -0.91824532 0.39553714 0
0.24834038 -0.11227319 -0.071145706 -0.019454006 -0.92005676 0.39130172 0
0.35243854 -0.11319721 -0.066572413 -0.050911538 -0.92242783 0.38279876 0
0.45347825 -0.11680923 -0.057603195 -0.045093533 -0.93280333 0.35755348 0
0.54925162 -0.11732606 -0.053136494 -0.017246088 -0.93638915 0.35053939 0
0.65241861 -0.11852036 -0.050907861 -0.019217798 -0.94155407 0.33631304 0
0.75056535 -0.12022311 -0.049859453 -0.02092596 -0.94647306 0.32210389 0
0.85199457 -0.12250465 -0.049779743 -0.022215974 -0.94962609 0.31259683 0
0.94984227 -0.12466579 -0.049117167 -0.023734245 -0.9536984 0.2998268 0
1.0513388 -0.12713915 -0.048715845 -0.025003463 -0.95565945 0.29341063 0
1.1487231 -0.12991562 -0.049339432 -0.024938213 -0.96150774 0.27364367 0
1.2508278 -0.13269122 -0.050478134 -0.02261628 -0.96486431 0.26177362 0
1.3512607 -0.13529593 -0.051154204 -0.024021298 -0.96862459 0.24736482 0
1.448698 -0.1380232 -0.052022967 -0.025122905 -0.97102267 0.23766312 0
1.549984 -0.14060497 -0.051198844 -0.027333189 -0.97574526 0.21719588 0
1.6481967 -0.14325584 -0.050365634 -0.029322146 -0.97933269 0.20011953 0
1.7505066 -0.14667907 -0.051891111 -0.030831842 -0.98307133 0.18061075 0
1.8510959 -0.14854954 -0.053790826 -0.031298406 -0.98538655 0.16743256 0
1.9470608 -0.14408328 -0.056132853 -0.021702155 -0.99239564 0.12116001 0
2.0523458 -0.13862669 -0.058392804 -0.00187646 -0.99994761 0.010062759 0
2.1533113 -0.13475843 -0.051476073 0.17944562 -0.96721464 -0.17970853 0
2.2506831 -0.13756964 -0.049404718 0.79557854 -0.34338316 -0.49914208 0
2.3519175 -0.14221799 -0.049737632 0.77840424 0.61816448 -0.10935961 0
2.4499099 -0.14783022 -0.050677247 0.37915099 -0.91866612 -0.11089181 0
2.5500128 -0.15055469 -0.04833103 0.15863894 0.98633361 0.044494942 0
2.6143279 -0.15418242 -0.047593251 0.99608481 0.087936968 0.0090674721 0
-0.010615248 -0.048632987 -0.046206597 -0.98089623 -0.092237428 -0.17127389 0
0.047490653 -0.07392507 -0.039996263 -0.064088367 -0.92924672 0.36385864 0
0.15200602 -0.064310402 -0.044446439 -0.019371014 -0.95947951 0.28111169 0
0.24960527 -0.060838871 -0.046200227 -0.017662872 -0.98558849 0.16823588 0
0.3489162 -0.055425782 -0.04922051 -0.070927657 -0.95849556 -0.27614424 0
0.45139006 -0.03611663 -0.058872741 0.054065723 0.79488164 -0.60435098 0
0.5528273 -0.025669426 -0.064828828 0.059633188 0.84668869 -0.52873629 0
0.64983433 -0.019283079 -0.065354779 0.056056887 0.87123275 -0.4876588 0
0.75225669 -0.020180702 -0.05620046 0.057760272 0.89575762 -0.44077435 0
0.85044819 -0.02407022 -0.050497856 0.058342349 0.90722764 -0.41657454 0
0.94858563 -0.030701147 -0.051478587 0.057379413 0.91450852 -0.40047684 0
1.0512191 -0.036860283 -0.051172614 0.056263536 0.92389762 -0.37848061 0
1.1504288 -0.042854894 -0.050978594 0.058136974 0.93134665 -0.35946289 0
1.2510237 -0.049641531 -0.051809449 0.062234312 0.93445921 -0.35058936 0
1.3510983 -0.056704286 -0.05293376 0.061691139 0.94046193 -0.33425379 0
1.450776 -0.06248989 -0.050741971 0.061687294 0.94610023 -0.31794503 0
1.5509448 -0.068492301 -0.049637284 0.061038289 0.95079768 -0.30374017 0
1.6509279 -0.074945465 -0.049910933 0.059692305 0.96113783 -0.26953828 0
1.7491606 -0.080593094 -0.048667822 0.059222635 0.96748692 -0.24588974 0
1.8514668 -0.08667212 -0.048503488 0.058511332 0.97398967 -0.21890734 0
1.9497082 -0.090623759 -0.03809797 0.068508208 0.98241204 -0.17370479 0
2.0438161 -0.09521655 -0.027898295 0.070350505 0.98817861 -0.13621216 0
2.1177413 -0.098967344 -0.017137649 0.072223775 0.99453551 -0.07538408 0
-0.012135928 0.028233472 -0.031794433 -0.8910746 0.2779893 -0.35875899 0
0.046923723 0.033937756 -0.043964095 0.052999206 0.82390577 -0.56424326 0
0.14783134 0.030665442 -0.040143691 0.044590916 0.83462042 -0.54901767 0
0.24841258 0.024373014 -0.041985061 0.046058603 0.85336232 -0.51927966 0
0.34844777 0.020158118 -0.038858213 0.074767776 0.87665433 -0.47527567 0
0.44784787 0.014672903 -0.02754546 0.093363203 0.91642696 -0.38915935 0
0.54904795 0.0099210236 -0.021122402 0.064971417 0.92978728 -0.36231801 0
0.64609927 0.0054411646 -0.014981194 0.066865712 0.94722533 -0.31351748 0
0.73274118 0.0018873122 -0.0067026527 0.067980364 0.94689614 -0.31427109 0
0.6829294 -0.10044258 0.0010244441 -0.025582608 -0.92641819 0.375626 0
0.76310545 -0.10143646 0.0040336819 -0.025582608 -0.92641819 0.37562591 0
0.84946525 -0.10258851 0.0075678499 -0.029211804 -0.93960238 0.34101906 0
0.95002198 -0.10382512 0.014363178 -0.034129594 -0.9542284 0.29712513 0
1.0514367 -0.10590058 0.018817807 -0.034262385 -0.9466877 0.32032576 0
1.1520699 -0.10792961 0.023811454 -0.034791518 -0.95045972 0.30889463 0
1.2505509 -0.10998991 0.027958294 -0.033348441 -0.95317578 0.30057251 0
1.3474801 -0.1120386 0.032354474 -0.035279147 -0.95222104 0.30336532 0
1.4514443 -0.11394098 0.038281675 -0.037720729 -0.95237422 0.3025898 0
1.5506203 -0.11624941 0.043474112 -0.038575318 -0.9442547 0.32694811 0
1.6491802 -0.119323 0.045289677 -0.039999686 -0.94135588 0.33503592 0
1.7507473 -0.12199295 0.04926848 -0.039048862 -0.92030686 0.38924336 0
1.8503315 -0.12634738 0.048074745 -0.038006507 -0.90985829 0.41317475 0
1.9525299 -0.12822345 0.05183902 -0.024821356 -0.84845537 0.52868456 0
2.0507839 -0.13015217 0.050755672 -0.016346147 -0.79106987 0.61150742 0
2.1551242 -0.12653746 0.043535743 0.046658404 -0.25345579 0.96622109 0
2.251055 -0.13076647 0.041306764 0.065329723 0.037581287 0.99715585 0
2.3502674 -0.13793294 0.037469339 0.058800951 -0.048227668 0.99710405 0
2.4485407 -0.14414524 0.036667582 0.058590334 0.019024609 0.99810082 0
2.5480444 -0.15085806 0.034281548 0.062729232 0.10077325 0.99292988 0
2.6131804 -0.15641928 0.029778995 0.92244411 -0.15158918 0.35513026 0
-0.017497309 -0.030852005 0.046729852 -0.90024495 -0.38611773 0.201177 0
0.052570917 -0.048723042 0.051442862 -0.030589834 -0.89149719 0.45199218 0
0.15288936 -0.051162876 0.053437021 -0.031008568 -0.89462173 0.44574696 0
0.2516588 -0.055661414 0.051490687 -0.032196108 -0.89955521 0.43561888 0
0.34812042 -0.061699562 0.047753543 -0.072165735 -0.9030515 0.42342666 0
0.45184645 -0.072473377 0.049692567 -0.072955936 -0.90901291 0.41033292 0
0.54910481 -0.076687306 0.04914888 -0.028686943 -0.91434699 0.40391409 0
0.65121835 -0.079711236 0.049808573 -0.029923029 -0.91557395 0.4010348 0
0.74980003 -0.080843285 0.053480051 -0.031257018 -0.91617924 0.39954782 0
0.85315305 -0.049051508 0.055064339 0.050840124 -0.42022878 0.90599281 0
0.95133859 -0.042619392 0.055412725 0.11119016 0.58911133 0.80036527 0
1.0499179 -0.045460999 0.058244508 0.10549423 0.71184295 0.69437063 0
1.1509296 -0.047059633 0.059294268 0.10029452 0.84501398 0.52525455 0
1.2493813 -0.051128965 0.060730241 0.098906554 0.85593563 0.50753498 0
1.3498504 -0.055724826 0.059961036 0.094386645 0.88792324 0.45020396 0
1.4529688 -0.059517864 0.06006014 0.088581085 0.90303624 0.42033195 0
1.5511395 -0.064826392 0.058983017 0.086252324 0.90651071 0.41327828 0
1.6485485 -0.069931798 0.055722773 0.084306888 0.92788005 0.36322305 0
1.7500709 -0.076770194 0.053073175 0.083412275 0.93641716 0.34083015 0
1.8469024 -0.082112737 0.047598317 0.081980579 0.96379185 0.25374076 0
1.9468901 -0.08830189 0.04042666 0.082424276 0.98062992 0.17768312 0
2.0488257 -0.094666049 0.031612836 0.081074499 0.98932469 0.12109327 0
2.1167316 -0.098638795 0.019619364 0.079282813 0.99563032 0.049339116 0
-0.018780785 0.052597973 0.052242532 -0.95864207 0.27223015 -0.083043337 0
0.051386792 0.078201413 0.047710445 0.081825398 0.96151942 -0.26226914 0
0.15129767 0.070650198 0.05184067 0.08566656 0.97150975 -0.22097526 0
0.24920492 0.061908532 0.051884893 0.087321311 0.97541851 -0.2023208 0
0.34828371 0.051557779 0.05048807 0.14574665 0.97507101 -0.16731542 0
0.45050251 0.031641442 0.048378017 0.15118235 0.98693222 -0.055755325 0
0.54834181 0.022746442 0.049485087 0.078594819 0.9963811 -0.032364432 0
0.64914685 0.014768426 0.048352778 0.078638531 0.99675918 -0.016946826 0
0.74956435 0.0069075865 0.049929071 0.078948006 0.99685299 0.0071642539 0
0.82546204 0.0019859369 0.047022849 0.07846079 0.9968856 -0.0079417881 0
-0.013927221 -0.0092272125 0.11648915 -0.50614023 -0.74381971 0.43652511 0
0.049282286 -0.012568771 0.11967484 -0.033214897 -0.86125302 0.50708979 0
0.15409474 -0.014903521 0.12251762 -0.032886706 -0.85693306 0.51437747 0
0.25213638 -0.016156849 0.12649564 -0.032206494 -0.84645844 0.5314799 0
0.35339171 -0.020256002 0.12671055 -0.056569055 -0.81848043 0.57174271 0
0.45125443 -0.027563965 0.12507257 -0.014881316 -0.64632601 0.76291627 0
0.55060858 -0.028377784 0.12455586 0.0051020873 -0.47874278 0.87794036 0
0.65114403 -0.029750722 0.12237146 0.017813198 -0.31328034 0.94949365 0
0.7507776 -0.029683048 0.1175813 0.038028728 -0.05492226 0.99776614 0
0.8485285 -0.034526974 0.11445572 0.043126687 0.028847381 0.99865305 0
0.94716775 -0.041019641 0.11294921 0.039907277 0.0030730676 0.99919868 0
1.0493133 -0.049379572 0.11116142 0.031457931 -0.10061846 0.99442762 0
1.1521307 -0.054897651 0.10844351 0.040051427 0.01267243 0.99911726 0
1.2483493 -0.061274998 0.10621243 0.041650053 0.027481869 0.9987542 0
1.348945 -0.068778493 0.10401336 0.039826106 0.0217211 0.99897051 0
1.4397552 -0.074457794 0.10189431 0.036351323 -0.012642553 0.99925911 0
1.5192127 -0.07775683 0.10075162 0.060132612 0.36305675 0.92982465 0
-0.017468166 0.051560193 0.14482176 -0.95920575 0.053435262 0.27761304 0
0.048760563 0.057529978 0.1545081 0.10531294 0.48618385 0.86748743 0
0.14905646 0.050287098 0.15286539 0.1026342 0.48981503 0.86576414 0
0.25052437 0.045088597 0.14983918 0.10563548 0.59946913 0.79339647 0
0.34665129 0.03857746 0.14264566 0.23378438 0.68907762 0.68594229 0
0.44628263 0.020089934 0.12276386 0.24109288 0.7912358 0.5619787 0
0.54834515 0.011027144 0.11754998 0.08193744 0.82899809 0.5532164 0
0.6413039 0.0063450243 0.11139547 0.082949005 0.88213235 0.46364 0
0.72169209 0.0018381487 0.10543858 0.083022051 0.89725792 0.43363059 0
